X,Y,Z,Nx,Ny,Nz
-0.038643,0.040249,-0.244052,-0.710562,0.692686,-0.123641
-0.039545,0.039110,-0.245279,-0.710562,0.692686,-0.123641
-0.038360,0.040700,-0.243136,-0.710562,0.692686,-0.123641
-0.038951,0.040243,-0.242299,-0.710562,0.692686,-0.123641
-0.052223,0.013019,-0.226856,-0.986951,0.152286,0.052312
-0.052778,0.009921,-0.228311,-0.986951,0.152286,0.052312
-0.040466,-0.037392,-0.237216,-0.732742,-0.674240,0.092141
-0.040173,-0.037723,-0.237301,-0.732742,-0.674240,0.092141
-0.040409,-0.036809,-0.229036,-0.748407,-0.653934,0.110711
-0.040215,-0.036784,-0.227577,-0.748407,-0.653934,0.110711
-0.010468,0.056339,-0.239817,-0.165518,0.951394,-0.259716
-0.010353,0.056280,-0.240105,-0.165518,0.951394,-0.259716
-0.039962,-0.035054,-0.219209,-0.756831,-0.624807,0.191894
-0.040200,-0.034858,-0.219511,-0.756831,-0.624807,0.191894
-0.042145,-0.029371,-0.211441,-0.806318,-0.535992,0.250129
-0.042521,-0.028373,-0.210505,-0.806318,-0.535992,0.250129
-0.009868,0.060949,-0.227074,-0.160687,0.908666,-0.385365
-0.010700,0.060742,-0.227215,-0.160687,0.908666,-0.385365
-0.042232,-0.028387,-0.209437,-0.811487,-0.545576,0.209367
-0.042003,-0.028754,-0.209507,-0.811487,-0.545576,0.209367
-0.025757,0.071617,-0.200440,-0.569695,0.650360,-0.502474
-0.025374,0.072729,-0.199437,-0.569695,0.650360,-0.502474
-0.025898,0.068520,-0.204289,-0.569695,0.650360,-0.502474
-0.025696,0.071584,-0.200553,-0.569695,0.650360,-0.502474
-0.026852,0.068073,-0.203782,-0.569695,0.650360,-0.502474
-0.009875,0.055678,-0.243126,-0.145556,0.967370,-0.207386
-0.010109,0.055737,-0.242686,-0.145556,0.967370,-0.207386
-0.038996,0.048240,-0.213098,-0.827112,0.532894,-0.178632
-0.038612,0.048514,-0.214055,-0.827112,0.532894,-0.178632
-0.038662,0.048885,-0.212722,-0.827112,0.532894,-0.178632
-0.041965,-0.035236,-0.230778,-0.742514,-0.659518,0.117083
-0.048462,0.018933,-0.203694,-0.978325,0.125235,0.164914
-0.048719,0.018232,-0.204691,-0.978325,0.125235,0.164914
-0.049218,0.016449,-0.206297,-0.978325,0.125235,0.164914
-0.048479,0.018221,-0.203245,-0.978325,0.125235,0.164914
-0.040836,0.048382,-0.194575,-0.952723,0.303533,-0.013628
-0.040943,0.048022,-0.195095,-0.952723,0.303533,-0.013628
-0.041027,0.047694,-0.196654,-0.952723,0.303533,-0.013628
-0.041103,0.047461,-0.196475,-0.952723,0.303533,-0.013628
-0.040543,0.049316,-0.194355,-0.952723,0.303533,-0.013628
-0.039941,0.051258,-0.193314,-0.952723,0.303533,-0.013628
-0.040821,-0.036502,-0.230579,-0.747761,-0.662302,0.047002
-0.041254,-0.036527,-0.237843,-0.759622,-0.648874,-0.044015
-0.042316,-0.035275,-0.238009,-0.759622,-0.648874,-0.044015
-0.040649,-0.037190,-0.238518,-0.754371,-0.654548,0.049911
-0.040867,-0.036952,-0.238691,-0.754371,-0.654548,0.049911
-0.040623,-0.037255,-0.238963,-0.754371,-0.654548,0.049911
-0.020476,0.068206,-0.209492,-0.418808,0.744001,-0.520636
-0.020715,0.067363,-0.210503,-0.418808,0.744001,-0.520636
-0.021136,0.067675,-0.209721,-0.418808,0.744001,-0.520636
-0.042504,-0.029793,-0.213726,-0.799048,-0.557943,0.224104
-0.052209,0.012586,-0.226008,-0.983425,0.152870,0.097500
-0.052047,0.013420,-0.225685,-0.983425,0.152870,0.097500
-0.017184,0.067144,-0.212978,-0.341296,0.786743,-0.514347
-0.017605,0.066909,-0.213059,-0.341296,0.786743,-0.514347
-0.018637,0.066185,-0.213488,-0.341296,0.786743,-0.514347
-0.018182,0.066418,-0.213432,-0.341296,0.786743,-0.514347
-0.009991,0.055131,-0.245731,-0.171028,0.964805,-0.199750
-0.010866,0.054946,-0.245873,-0.171028,0.964805,-0.199750
-0.010397,0.054906,-0.246778,-0.170145,0.977403,-0.125435
-0.011050,0.054855,-0.246304,-0.170145,0.977403,-0.125435
-0.038775,0.047612,-0.169279,-0.975203,0.090457,0.201980
-0.010060,0.059130,-0.231315,-0.154194,0.926551,-0.343115
-0.010005,0.058907,-0.231941,-0.154194,0.926551,-0.343115
-0.040339,-0.035363,-0.221747,-0.751942,-0.628419,0.199180
-0.039894,-0.037751,-0.232983,-0.744860,-0.667184,0.006935
-0.040836,-0.036694,-0.232462,-0.744860,-0.667184,0.006935
-0.041655,-0.035870,-0.233545,-0.738014,-0.667587,0.098304
-0.039898,-0.037778,-0.233306,-0.738014,-0.667587,0.098304
-0.053902,0.009296,-0.242530,-0.986351,0.155248,0.054862
-0.053917,0.008884,-0.241638,-0.986351,0.155248,0.054862
-0.053982,0.008811,-0.242595,-0.986351,0.155248,0.054862
-0.030768,0.081023,-0.124638,-0.985424,0.160910,-0.055203
-0.030670,0.081615,-0.124648,-0.985424,0.160910,-0.055203
-0.030438,0.082972,-0.124937,-0.989171,0.146420,0.010059
-0.038981,0.050484,-0.172727,-0.979252,0.139540,0.146950
-0.038051,0.053924,-0.169806,-0.979252,0.139540,0.146950
-0.040103,0.045828,-0.175771,-0.979252,0.139540,0.146950
-0.039266,0.049451,-0.173647,-0.979252,0.139540,0.146950
-0.037870,0.054513,-0.169162,-0.979252,0.139540,0.146950
-0.039138,0.050054,-0.173368,-0.979252,0.139540,0.146950
-0.039787,0.047960,-0.175700,-0.979252,0.139540,0.146950
-0.039512,0.048217,-0.174105,-0.979252,0.139540,0.146950
-0.039125,0.050047,-0.173277,-0.979252,0.139540,0.146950
-0.040373,0.045051,-0.176827,-0.979252,0.139540,0.146950
-0.038087,0.053664,-0.169801,-0.979252,0.139540,0.146950
-0.037757,0.054952,-0.168831,-0.979252,0.139540,0.146950
-0.038399,0.052351,-0.170631,-0.979252,0.139540,0.146950
-0.041783,-0.035963,-0.241370,-0.755325,-0.655172,-0.015301
-0.041619,-0.036170,-0.240485,-0.755325,-0.655172,-0.015301
-0.030843,0.080195,-0.128871,-0.993536,0.113516,-0.001081
-0.030966,0.079108,-0.129738,-0.993536,0.113516,-0.001081
-0.041680,-0.034825,-0.226420,-0.755343,-0.641667,0.133120
-0.040113,-0.036746,-0.226773,-0.755343,-0.641667,0.133120
-0.041323,-0.035297,-0.226666,-0.755343,-0.641667,0.133120
-0.042169,-0.034214,-0.226236,-0.762692,-0.639724,0.095153
-0.040404,-0.036245,-0.225801,-0.762692,-0.639724,0.095153
-0.052106,0.012259,-0.224282,-0.984538,0.155955,0.079763
-0.052113,0.012628,-0.225091,-0.984538,0.155955,0.079763
-0.051762,0.014432,-0.224264,-0.984538,0.155955,0.079763
-0.051651,0.015248,-0.224491,-0.984538,0.155955,0.079763
-0.050867,0.015623,-0.217010,-0.981499,0.150342,0.118562
-0.050640,0.015398,-0.214866,-0.981499,0.150342,0.118562
-0.050590,0.016678,-0.216076,-0.981499,0.150342,0.118562
-0.050547,0.017176,-0.216353,-0.981499,0.150342,0.118562
-0.041439,0.036211,-0.254731,-0.753069,0.656993,-0.035322
-0.042259,0.035239,-0.255321,-0.753069,0.656993,-0.035322
-0.042721,-0.034817,-0.244850,-0.782832,-0.622109,-0.012470
-0.043204,-0.034197,-0.245422,-0.782832,-0.622109,-0.012470
-0.043671,-0.033617,-0.245079,-0.782832,-0.622109,-0.012470
-0.037712,0.044905,-0.228435,-0.743832,0.639110,-0.195583
-0.036943,0.046331,-0.226707,-0.743832,0.639110,-0.195583
-0.037289,0.046035,-0.226357,-0.743832,0.639110,-0.195583
-0.037523,0.043340,-0.234752,-0.695389,0.692306,-0.192735
-0.043404,-0.025349,-0.207086,-0.835813,-0.508162,0.207816
-0.043018,-0.025938,-0.206965,-0.835813,-0.508162,0.207816
-0.048214,0.015497,-0.200290,-0.976401,0.090110,0.196268
-0.046727,0.019632,-0.194801,-0.976401,0.090110,0.196268
-0.047238,0.018467,-0.196802,-0.976401,0.090110,0.196268
-0.046710,0.019666,-0.194733,-0.976401,0.090110,0.196268
-0.047000,0.018899,-0.195822,-0.976401,0.090110,0.196268
-0.047903,0.017077,-0.199468,-0.976401,0.090110,0.196268
-0.013437,0.053318,-0.256613,-0.242546,0.968951,-0.048017
-0.013794,0.053243,-0.256318,-0.242546,0.968951,-0.048017
-0.043190,-0.025869,-0.207430,-0.835566,-0.483424,0.261018
-0.043147,-0.025957,-0.207453,-0.835566,-0.483424,0.261018
-0.043556,-0.025855,-0.208570,-0.835566,-0.483424,0.261018
-0.051221,0.015661,-0.220506,-0.981737,0.165842,0.093211
-0.051462,0.014736,-0.221414,-0.981737,0.165842,0.093211
-0.051152,0.015373,-0.219256,-0.981737,0.165842,0.093211
-0.051328,0.015443,-0.221253,-0.981737,0.165842,0.093211
-0.023863,0.068664,-0.206151,-0.482803,0.699981,-0.526239
-0.022749,0.069279,-0.206356,-0.482803,0.699981,-0.526239
-0.023154,0.067754,-0.208018,-0.482803,0.699981,-0.526239
-0.038716,0.050682,-0.206952,-0.873988,0.467951,-0.131026
-0.038737,0.050597,-0.207119,-0.873988,0.467951,-0.131026
-0.039494,0.049185,-0.207159,-0.869701,0.473198,-0.140368
-0.039645,0.048780,-0.207588,-0.869701,0.473198,-0.140368
-0.039056,0.050219,-0.206398,-0.869701,0.473198,-0.140368
-0.039217,0.050035,-0.206026,-0.869701,0.473198,-0.140368
-0.039666,0.049139,-0.206255,-0.869701,0.473198,-0.140368
-0.043429,-0.033886,-0.248470,-0.781253,-0.624176,-0.006889
-0.042792,-0.034705,-0.246405,-0.781253,-0.624176,-0.006889
-0.042589,-0.034956,-0.246701,-0.781253,-0.624176,-0.006889
-0.043126,-0.034276,-0.247434,-0.781253,-0.624176,-0.006889
-0.052752,0.012438,-0.232522,-0.984538,0.155955,0.079763
-0.052877,0.012233,-0.233674,-0.984538,0.155955,0.079763
-0.032820,0.073428,-0.161855,-0.936173,0.351537,0.001260
-0.032952,0.073073,-0.161424,-0.936173,0.351537,0.001260
-0.033013,0.072921,-0.163274,-0.936173,0.351537,0.001260
-0.042545,-0.031196,-0.217756,-0.801464,-0.550328,0.234083
-0.042938,-0.030857,-0.218302,-0.801464,-0.550328,0.234083
-0.041559,-0.032102,-0.216416,-0.802541,-0.569789,0.176831
-0.041679,-0.031904,-0.216324,-0.802541,-0.569789,0.176831
-0.010253,0.059365,-0.230669,-0.138675,0.914696,-0.379606
-0.010415,0.059393,-0.230542,-0.138675,0.914696,-0.379606
-0.037355,0.048636,-0.218739,-0.770808,0.600891,-0.211625
-0.037433,0.048633,-0.218463,-0.770808,0.600891,-0.211625
-0.037570,0.048582,-0.218109,-0.770808,0.600891,-0.211625
-0.031439,0.072495,-0.186505,-0.839567,0.514477,-0.174475
-0.032357,0.070552,-0.187802,-0.839567,0.514477,-0.174475
-0.031441,0.072185,-0.187403,-0.839567,0.514477,-0.174475
-0.031515,0.072681,-0.185590,-0.839567,0.514477,-0.174475
-0.031558,0.072629,-0.185535,-0.839567,0.514477,-0.174475
-0.028798,0.072883,-0.193843,-0.740196,0.574262,-0.349763
-0.030316,0.070207,-0.195031,-0.740196,0.574262,-0.349763
-0.028873,0.071925,-0.195274,-0.742499,0.573527,-0.346066
-0.030640,0.069498,-0.195512,-0.742499,0.573527,-0.346066
-0.028533,0.072800,-0.194551,-0.742499,0.573527,-0.346066
-0.042296,-0.028079,-0.208947,-0.823702,-0.515776,0.235563
-0.038692,0.039882,-0.246426,-0.727953,0.681642,-0.073808
-0.038603,0.040136,-0.244962,-0.727953,0.681642,-0.073808
-0.040011,0.038492,-0.246243,-0.727953,0.681642,-0.073808
-0.042074,-0.033720,-0.223647,-0.783681,-0.608872,0.122959
-0.041240,-0.035022,-0.224783,-0.783681,-0.608872,0.122959
-0.009561,0.058245,-0.234022,-0.118493,0.930235,-0.347306
-0.009256,0.058263,-0.234078,-0.118493,0.930235,-0.347306
-0.046149,-0.029939,-0.255785,-0.826755,-0.562521,0.006810
-0.046273,-0.029752,-0.255473,-0.826755,-0.562521,0.006810
-0.045355,-0.031119,-0.256859,-0.826755,-0.562521,0.006810
-0.054229,0.009112,-0.255686,-0.988094,0.153654,0.007851
-0.054416,0.007922,-0.255968,-0.988094,0.153654,0.007851
-0.054286,0.008771,-0.256200,-0.988094,0.153654,0.007851
-0.054449,0.007583,-0.253528,-0.988094,0.153654,0.007851
-0.054472,0.007458,-0.253967,-0.988094,0.153654,0.007851
-0.054243,0.008805,-0.251353,-0.988094,0.153654,0.007851
-0.040807,-0.036427,-0.229571,-0.753849,-0.652173,0.079888
-0.041863,-0.035218,-0.229684,-0.753849,-0.652173,0.079888
-0.043407,-0.024063,-0.204405,-0.852746,-0.471055,0.225682
-0.043684,-0.023604,-0.204492,-0.852746,-0.471055,0.225682
-0.043061,-0.024769,-0.204568,-0.852746,-0.471055,0.225682
-0.030997,0.079376,-0.135518,-0.988094,0.153654,0.007851
-0.032243,0.074045,-0.145585,-0.981139,0.191070,0.029305
-0.032117,0.074544,-0.144599,-0.981139,0.191070,0.029305
-0.050096,0.018351,-0.214181,-0.980336,0.151294,0.126693
-0.050347,0.016081,-0.213412,-0.980336,0.151294,0.126693
-0.049963,0.017385,-0.212005,-0.980336,0.151294,0.126693
-0.050118,0.016788,-0.212490,-0.980336,0.151294,0.126693
-0.050333,0.016508,-0.213809,-0.980336,0.151294,0.126693
-0.031824,0.075563,-0.142103,-0.984199,0.175046,0.026663
-0.031587,0.076931,-0.142299,-0.984199,0.175046,0.026663
-0.039187,0.046813,-0.170948,-0.978834,0.122200,0.164168
-0.038612,0.049094,-0.169217,-0.978834,0.122200,0.164168
-0.040163,0.044366,-0.174943,-0.978834,0.122200,0.164168
-0.039170,0.047132,-0.171087,-0.978834,0.122200,0.164168
-0.039502,0.046338,-0.172474,-0.978834,0.122200,0.164168
-0.040061,0.043740,-0.173877,-0.978834,0.122200,0.164168
-0.039507,0.046766,-0.172818,-0.978834,0.122200,0.164168
-0.039316,0.047351,-0.172116,-0.978834,0.122200,0.164168
-0.012212,0.053708,-0.254200,-0.217406,0.972735,-0.080751
-0.012408,0.053690,-0.253883,-0.217406,0.972735,-0.080751
-0.053959,0.009757,-0.245878,-0.984994,0.170146,0.028936
-0.053923,0.010317,-0.247964,-0.984994,0.170146,0.028936
-0.053932,0.009881,-0.245694,-0.984994,0.170146,0.028936
-0.053732,0.011215,-0.246753,-0.984994,0.170146,0.028936
-0.035972,0.046409,-0.229589,-0.707106,0.679255,-0.196504
-0.036798,0.045142,-0.230984,-0.707106,0.679255,-0.196504
-0.042325,-0.034820,-0.231113,-0.771005,-0.635691,0.038057
-0.043067,-0.033974,-0.231994,-0.771005,-0.635691,0.038057
-0.032452,0.074482,-0.156944,-0.944608,0.328180,0.003743
-0.032766,0.073603,-0.158812,-0.944608,0.328180,0.003743
-0.032380,0.074696,-0.157492,-0.944608,0.328180,0.003743
-0.032739,0.073694,-0.159722,-0.944608,0.328180,0.003743
-0.042006,-0.032813,-0.220271,-0.803488,-0.567435,0.180066
-0.042787,-0.031744,-0.220384,-0.803488,-0.567435,0.180066
-0.012947,0.065292,-0.217774,-0.190696,0.839363,-0.509023
-0.012906,0.064765,-0.218658,-0.190696,0.839363,-0.509023
-0.042161,-0.035460,-0.237609,-0.768047,-0.640271,0.012500
-0.042626,-0.034905,-0.237733,-0.768047,-0.640271,0.012500
-0.039342,0.039127,-0.246995,-0.726816,0.683467,-0.067913
-0.039674,0.038585,-0.248881,-0.726816,0.683467,-0.067913
-0.040525,0.037864,-0.247021,-0.726816,0.683467,-0.067913
-0.044664,-0.032079,-0.254992,-0.821320,-0.570092,0.020706
-0.044667,-0.032060,-0.254607,-0.821320,-0.570092,0.020706
-0.044968,-0.031696,-0.252766,-0.819340,-0.572568,-0.029114
-0.046007,-0.030156,-0.253792,-0.819340,-0.572568,-0.029114
-0.044983,-0.031636,-0.253503,-0.819340,-0.572568,-0.029114
-0.045153,-0.031440,-0.252588,-0.819340,-0.572568,-0.029114
-0.053451,0.009793,-0.236284,-0.983890,0.172798,0.045844
-0.052992,0.012222,-0.235641,-0.983890,0.172798,0.045844
-0.036884,0.058889,-0.166955,-0.979126,0.164217,0.119767
-0.038211,0.053934,-0.171002,-0.979126,0.164217,0.119767
-0.037958,0.055029,-0.170441,-0.979126,0.164217,0.119767
-0.037257,0.057156,-0.167621,-0.979126,0.164217,0.119767
-0.036725,0.059366,-0.166306,-0.979126,0.164217,0.119767
-0.037637,0.055803,-0.168871,-0.979126,0.164217,0.119767
-0.037800,0.055261,-0.169459,-0.979126,0.164217,0.119767
-0.036897,0.059000,-0.167221,-0.979126,0.164217,0.119767
-0.037305,0.057533,-0.168542,-0.979126,0.164217,0.119767
-0.052923,0.013062,-0.236821,-0.982764,0.168782,0.075413
-0.053535,0.009549,-0.236977,-0.982764,0.168782,0.075413
-0.052972,0.012847,-0.236982,-0.982764,0.168782,0.075413
-0.013757,0.053239,-0.257146,-0.247877,0.968755,0.008382
-0.044205,-0.026457,-0.212443,-0.840318,-0.502380,0.203668
-0.043109,-0.028033,-0.211819,-0.840318,-0.502380,0.203668
-0.044740,-0.032095,-0.247750,-0.812147,-0.583256,-0.015167
-0.044397,-0.032580,-0.247489,-0.812147,-0.583256,-0.015167
-0.043495,-0.033784,-0.249336,-0.812147,-0.583256,-0.015167
-0.043674,-0.033574,-0.247858,-0.812147,-0.583256,-0.015167
-0.008490,0.055847,-0.243283,-0.136191,0.963714,-0.229579
-0.007292,0.055877,-0.243867,-0.136191,0.963714,-0.229579
-0.043533,-0.028151,-0.213728,-0.830587,-0.517788,0.204989
-0.025255,0.073694,-0.198321,-0.557076,0.658056,-0.506585
-0.024409,0.073277,-0.199790,-0.557076,0.658056,-0.506585
-0.025316,0.070004,-0.203023,-0.557076,0.658056,-0.506585
-0.024271,0.073341,-0.199859,-0.557076,0.658056,-0.506585
-0.025486,0.068750,-0.204450,-0.540301,0.661490,-0.520103
-0.025117,0.068775,-0.204802,-0.540301,0.661490,-0.520103
-0.025020,0.070333,-0.202918,-0.540301,0.661490,-0.520103
-0.024528,0.068956,-0.205184,-0.540301,0.661490,-0.520103
-0.042627,-0.034914,-0.239323,-0.790598,-0.611489,-0.032184
-0.043529,-0.033771,-0.238890,-0.790598,-0.611489,-0.032184
-0.042798,-0.034687,-0.239425,-0.790598,-0.611489,-0.032184
-0.041986,-0.035729,-0.240247,-0.788189,-0.614591,0.032200
-0.043630,-0.033648,-0.240706,-0.788189,-0.614591,0.032200
-0.043860,-0.033344,-0.240542,-0.788189,-0.614591,0.032200
-0.042930,-0.034550,-0.240832,-0.788189,-0.614591,0.032200
-0.008690,0.056229,-0.241469,-0.150475,0.961730,-0.228983
-0.041509,-0.034128,-0.222627,-0.781989,-0.579884,0.228534
-0.042169,-0.033161,-0.222366,-0.793166,-0.593759,0.135419
-0.043051,-0.032013,-0.222492,-0.793166,-0.593759,0.135419
-0.044520,-0.021101,-0.202855,-0.868637,-0.444036,0.219776
-0.044173,-0.021438,-0.202167,-0.868637,-0.444036,0.219776
-0.041277,-0.035082,-0.225221,-0.774410,-0.610739,0.165187
-0.042671,-0.033267,-0.225053,-0.774410,-0.610739,0.165187
-0.038229,0.053036,-0.202680,-0.895778,0.428905,-0.116718
-0.039476,0.050135,-0.203815,-0.895778,0.428905,-0.116718
-0.039279,0.050426,-0.204257,-0.895778,0.428905,-0.116718
-0.039175,0.051160,-0.202409,-0.893167,0.431721,-0.125978
-0.038692,0.052310,-0.201877,-0.893167,0.431721,-0.125978
-0.040778,0.047143,-0.204875,-0.893167,0.431721,-0.125978
-0.040026,0.048898,-0.204171,-0.893167,0.431721,-0.125978
-0.037713,0.041930,-0.240098,-0.691586,0.703746,-0.162637
-0.038266,0.041152,-0.241113,-0.691586,0.703746,-0.162637
-0.036221,0.043057,-0.241675,-0.700002,0.705922,-0.108034
-0.037235,0.042084,-0.241465,-0.700002,0.705922,-0.108034
-0.037359,0.041887,-0.241941,-0.700002,0.705922,-0.108034
-0.048950,0.018490,-0.206371,-0.978760,0.137348,0.152197
-0.049123,0.017403,-0.206502,-0.978760,0.137348,0.152197
-0.048596,0.019879,-0.205343,-0.978760,0.137348,0.152197
-0.048531,0.020125,-0.205150,-0.978760,0.137348,0.152197
-0.049005,0.017922,-0.206212,-0.978760,0.137348,0.152197
-0.048369,0.020964,-0.204859,-0.978760,0.137348,0.152197
-0.049525,0.017587,-0.209188,-0.978235,0.135143,0.157460
-0.049281,0.017609,-0.207686,-0.978235,0.135143,0.157460
-0.048917,0.019451,-0.207012,-0.978235,0.135143,0.157460
-0.049050,0.019371,-0.207771,-0.978235,0.135143,0.157460
-0.049082,0.019682,-0.208240,-0.978235,0.135143,0.157460
-0.043715,-0.033566,-0.244023,-0.802456,-0.596698,0.004115
-0.043567,-0.033755,-0.242781,-0.802456,-0.596698,0.004115
-0.043794,-0.033454,-0.243370,-0.802456,-0.596698,0.004115
-0.036936,0.045846,-0.228177,-0.702604,0.674437,-0.226899
-0.036014,0.047273,-0.226799,-0.702604,0.674437,-0.226899
-0.052344,0.014016,-0.230807,-0.978190,0.180873,0.102125
-0.052566,0.012512,-0.230262,-0.978190,0.180873,0.102125
-0.051849,0.016018,-0.229593,-0.978190,0.180873,0.102125
-0.051872,0.015812,-0.229294,-0.981862,0.185057,0.041255
-0.052391,0.013080,-0.229431,-0.981862,0.185057,0.041255
-0.044245,-0.024172,-0.207639,-0.850481,-0.467080,0.241908
-0.043159,-0.025030,-0.205478,-0.850481,-0.467080,0.241908
-0.051013,0.016788,-0.220331,-0.981160,0.168998,0.093618
-0.051034,0.016456,-0.219952,-0.981160,0.168998,0.093618
-0.050711,0.018077,-0.219508,-0.981160,0.168998,0.093618
-0.007975,0.056656,-0.240150,-0.131430,0.961650,-0.240738
-0.008231,0.056704,-0.239819,-0.131430,0.961650,-0.240738
-0.020396,0.067106,-0.211047,-0.341349,0.749027,-0.567837
-0.019373,0.069501,-0.208505,-0.341349,0.749027,-0.567837
-0.018554,0.068492,-0.210326,-0.341349,0.749027,-0.567837
-0.019315,0.068138,-0.210336,-0.341349,0.749027,-0.567837
-0.017584,0.065675,-0.214952,-0.258038,0.792882,-0.552046
-0.016124,0.068001,-0.212294,-0.258038,0.792882,-0.552046
-0.017776,0.065440,-0.215200,-0.258038,0.792882,-0.552046
-0.042322,-0.034052,-0.226345,-0.796904,-0.595119,0.103817
-0.041848,-0.035105,-0.228743,-0.796904,-0.595119,0.103817
-0.053909,0.010767,-0.252243,-0.983762,0.179385,0.005713
-0.054121,0.009735,-0.256628,-0.983762,0.179385,0.005713
-0.054013,0.010179,-0.251594,-0.983762,0.179385,0.005713
-0.053957,0.010541,-0.253423,-0.983762,0.179385,0.005713
-0.054110,0.009681,-0.252740,-0.983762,0.179385,0.005713
-0.041108,0.047593,-0.193352,-0.951905,0.305658,-0.021209
-0.040191,0.050511,-0.192585,-0.951905,0.305658,-0.021209
-0.040333,0.050051,-0.192808,-0.951905,0.305658,-0.021209
-0.040427,0.049747,-0.192952,-0.951905,0.305658,-0.021209
-0.040025,0.051018,-0.192750,-0.951905,0.305658,-0.021209
-0.051432,0.015408,-0.222309,-0.982339,0.165129,0.087989
-0.051263,0.016420,-0.222325,-0.982339,0.165129,0.087989
-0.042752,-0.030078,-0.215720,-0.822532,-0.543860,0.166304
-0.044504,-0.027721,-0.216659,-0.822532,-0.543860,0.166304
-0.043971,-0.028389,-0.216214,-0.822532,-0.543860,0.166304
-0.042561,-0.030662,-0.216345,-0.821180,-0.514977,0.245890
-0.043877,-0.028662,-0.216552,-0.821180,-0.514977,0.245890
-0.052422,0.014299,-0.232951,-0.978780,0.196238,0.058992
-0.052461,0.013588,-0.231213,-0.978780,0.196238,0.058992
-0.052727,0.012832,-0.233123,-0.978780,0.196238,0.058992
-0.010223,0.061481,-0.225829,-0.154397,0.887422,-0.434332
-0.012021,0.060651,-0.226882,-0.154397,0.887422,-0.434332
-0.013812,0.065302,-0.217398,-0.229418,0.817590,-0.528123
-0.013571,0.065323,-0.217471,-0.229418,0.817590,-0.528123
-0.007466,0.059703,-0.230858,-0.098807,0.927164,-0.361391
-0.036790,0.049554,-0.218157,-0.742915,0.623546,-0.243450
-0.036648,0.049415,-0.218946,-0.742915,0.623546,-0.243450
-0.037173,0.048604,-0.219418,-0.742915,0.623546,-0.243450
-0.036781,0.043114,-0.238581,-0.699775,0.705693,-0.110958
-0.037903,0.041990,-0.238645,-0.699775,0.705693,-0.110958
-0.036060,0.043909,-0.238130,-0.685536,0.701011,-0.196531
-0.035623,0.044479,-0.237619,-0.685536,0.701011,-0.196531
-0.009292,0.054845,-0.248397,-0.185589,0.966881,-0.175207
-0.011606,0.054509,-0.247797,-0.185589,0.966881,-0.175207
-0.011316,0.054455,-0.248464,-0.161003,0.983905,-0.077520
-0.008660,0.054814,-0.249396,-0.161003,0.983905,-0.077520
-0.037461,0.046383,-0.224718,-0.739819,0.637023,-0.216494
-0.036442,0.047851,-0.223875,-0.739819,0.637023,-0.216494
-0.042691,-0.034232,-0.230327,-0.798334,-0.594751,0.094520
-0.044720,-0.032091,-0.250970,-0.807960,-0.589223,-0.004101
-0.044414,-0.032521,-0.249571,-0.807960,-0.589223,-0.004101
-0.044532,-0.032359,-0.249728,-0.807960,-0.589223,-0.004101
-0.043852,-0.033293,-0.249490,-0.807960,-0.589223,-0.004101
-0.031525,0.073565,-0.182233,-0.866847,0.488224,-0.101061
-0.032510,0.071567,-0.183465,-0.866847,0.488224,-0.101061
-0.031942,0.072454,-0.184032,-0.866847,0.488224,-0.101061
-0.031584,0.073661,-0.181476,-0.856551,0.498806,-0.132336
-0.032064,0.073142,-0.180316,-0.856551,0.498806,-0.132336
-0.032739,0.071434,-0.182385,-0.856551,0.498806,-0.132336
-0.032664,0.071461,-0.182772,-0.856551,0.498806,-0.132336
-0.040306,0.037600,-0.252251,-0.734157,0.676912,-0.052951
-0.039980,0.037992,-0.251759,-0.734157,0.676912,-0.052951
-0.039888,0.037969,-0.253343,-0.734157,0.676912,-0.052951
-0.039546,0.038272,-0.254853,-0.728940,0.684509,-0.009719
-0.040455,0.037303,-0.254904,-0.728940,0.684509,-0.009719
-0.011441,0.063274,-0.221887,-0.175605,0.866220,-0.467788
-0.012665,0.062218,-0.223385,-0.175605,0.866220,-0.467788
-0.012194,0.062862,-0.222368,-0.175605,0.866220,-0.467788
-0.008538,0.057072,-0.238200,-0.124041,0.948311,-0.292096
-0.009086,0.057009,-0.238169,-0.124041,0.948311,-0.292096
-0.050441,0.017770,-0.216329,-0.979769,0.172469,0.101524
-0.050776,0.017235,-0.218686,-0.979769,0.172469,0.101524
-0.050591,0.018460,-0.218970,-0.979769,0.172469,0.101524
-0.050676,0.017450,-0.218076,-0.979769,0.172469,0.101524
-0.043865,-0.027904,-0.214454,-0.831235,-0.519333,0.198346
-0.044306,-0.027707,-0.215778,-0.831235,-0.519333,0.198346
-0.030633,0.081547,-0.128120,-0.983446,0.180586,-0.014953
-0.042394,-0.034694,-0.230740,-0.799478,-0.594187,0.088188
-0.007994,0.058210,-0.234751,-0.135551,0.946171,-0.293917
-0.010134,0.057911,-0.234730,-0.135551,0.946171,-0.293917
-0.046195,0.023935,-0.194504,-0.976910,0.118225,0.177959
-0.045871,0.025005,-0.193448,-0.976910,0.118225,0.177959
-0.047583,0.019583,-0.199193,-0.976910,0.118225,0.177959
-0.047184,0.021075,-0.198007,-0.976910,0.118225,0.177959
-0.045430,0.026324,-0.191918,-0.976910,0.118225,0.177959
-0.047441,0.019547,-0.198393,-0.976910,0.118225,0.177959
-0.045733,0.025358,-0.192931,-0.976910,0.118225,0.177959
-0.046787,0.022108,-0.196525,-0.976910,0.118225,0.177959
-0.040405,0.037328,-0.256272,-0.752485,0.658597,0.004142
-0.041688,0.035868,-0.256702,-0.752485,0.658597,0.004142
-0.042579,-0.034780,-0.234295,-0.776308,-0.627623,0.058616
-0.042829,-0.034373,-0.233233,-0.776308,-0.627623,0.058616
-0.042016,-0.035449,-0.233998,-0.776308,-0.627623,0.058616
-0.030847,0.080135,-0.136945,-0.979010,0.202837,-0.019932
-0.031340,0.077869,-0.139561,-0.982732,0.178571,0.048486
-0.036170,0.049378,-0.220526,-0.720620,0.651541,-0.237067
-0.009995,0.060188,-0.228795,-0.110312,0.900653,-0.420305
-0.008775,0.060601,-0.228226,-0.110312,0.900653,-0.420305
-0.032251,0.073619,-0.175576,-0.886482,0.458998,-0.058916
-0.031726,0.074807,-0.174210,-0.886482,0.458998,-0.058916
-0.032740,0.072588,-0.176251,-0.886482,0.458998,-0.058916
-0.032178,0.073824,-0.175076,-0.886482,0.458998,-0.058916
-0.044451,-0.022463,-0.205117,-0.869146,-0.429301,0.245530
-0.044386,-0.022417,-0.204807,-0.869146,-0.429301,0.245530
-0.039288,0.049012,-0.209020,-0.858603,0.490003,-0.150658
-0.038527,0.050403,-0.208828,-0.858603,0.490003,-0.150658
-0.038319,0.051135,-0.207622,-0.858603,0.490003,-0.150658
-0.039227,0.048942,-0.209596,-0.858603,0.490003,-0.150658
-0.038061,0.051251,-0.208722,-0.858603,0.490003,-0.150658
-0.032630,0.073789,-0.154587,-0.959194,0.281971,0.020932
-0.032283,0.074975,-0.154670,-0.959194,0.281971,0.020932
-0.032520,0.074137,-0.154204,-0.959194,0.281971,0.020932
-0.032071,0.075587,-0.152361,-0.956876,0.290371,-0.008576
-0.044392,-0.025363,-0.210851,-0.854979,-0.477650,0.202140
-0.044320,-0.025494,-0.210859,-0.854979,-0.477650,0.202140
-0.040666,0.046811,-0.181442,-0.977643,0.183693,0.102326
-0.040147,0.048350,-0.179228,-0.977643,0.183693,0.102326
-0.039975,0.049232,-0.179161,-0.977643,0.183693,0.102326
-0.038647,0.054116,-0.175190,-0.977643,0.183693,0.102326
-0.038899,0.053143,-0.175862,-0.977643,0.183693,0.102326
-0.039585,0.050955,-0.178513,-0.977643,0.183693,0.102326
-0.038725,0.053774,-0.175325,-0.977643,0.183693,0.102326
-0.041458,0.044031,-0.184052,-0.977643,0.183693,0.102326
-0.037202,0.058220,-0.168692,-0.977643,0.183693,0.102326
-0.037645,0.056815,-0.170416,-0.977643,0.183693,0.102326
-0.039045,0.052862,-0.176756,-0.977643,0.183693,0.102326
-0.039625,0.050238,-0.177612,-0.977643,0.183693,0.102326
-0.039313,0.051474,-0.176837,-0.977643,0.183693,0.102326
-0.037772,0.056542,-0.171150,-0.977643,0.183693,0.102326
-0.040205,0.048226,-0.179566,-0.977643,0.183693,0.102326
-0.044316,-0.025879,-0.211638,-0.853089,-0.460759,0.244826
-0.039021,0.052048,-0.175070,-0.979013,0.166667,0.117284
-0.040536,0.046946,-0.180476,-0.979013,0.166667,0.117284
-0.039223,0.051247,-0.175624,-0.979013,0.166667,0.117284
-0.039401,0.050328,-0.175808,-0.979013,0.166667,0.117284
-0.038411,0.053989,-0.172733,-0.979013,0.166667,0.117284
-0.040205,0.046673,-0.177346,-0.979013,0.166667,0.117284
-0.038657,0.052800,-0.173108,-0.979013,0.166667,0.117284
-0.041236,0.043268,-0.181119,-0.979013,0.166667,0.117284
-0.039691,0.049005,-0.176360,-0.979013,0.166667,0.117284
-0.041120,0.044982,-0.182563,-0.979013,0.166667,0.117284
-0.041184,0.044133,-0.181897,-0.979013,0.166667,0.117284
-0.040808,0.044488,-0.179273,-0.979013,0.166667,0.117284
-0.041120,0.044787,-0.182292,-0.979013,0.166667,0.117284
-0.038851,0.052496,-0.174291,-0.979013,0.166667,0.117284
-0.041270,0.043208,-0.181314,-0.979013,0.166667,0.117284
-0.038185,0.054660,-0.171806,-0.979013,0.166667,0.117284
-0.040431,0.045988,-0.178255,-0.979013,0.166667,0.117284
-0.039255,0.050512,-0.174856,-0.979013,0.166667,0.117284
-0.039167,0.051506,-0.175524,-0.979013,0.166667,0.117284
-0.038367,0.054243,-0.172728,-0.979013,0.166667,0.117284
-0.038467,0.053750,-0.172863,-0.979013,0.166667,0.117284
-0.038138,0.054829,-0.171653,-0.979013,0.166667,0.117284
-0.044451,-0.020836,-0.202123,-0.882109,-0.409073,0.233543
-0.044683,-0.020169,-0.201834,-0.882109,-0.409073,0.233543
-0.053411,0.011926,-0.242291,-0.981175,0.189639,0.036514
-0.053677,0.010654,-0.242818,-0.981175,0.189639,0.036514
-0.053600,0.010763,-0.241341,-0.981175,0.189639,0.036514
-0.053695,0.010472,-0.242385,-0.981175,0.189639,0.036514
-0.030858,0.080107,-0.132885,-0.989391,0.144543,0.014566
-0.031114,0.078373,-0.133032,-0.989391,0.144543,0.014566
-0.031038,0.078898,-0.133073,-0.989391,0.144543,0.014566
-0.053552,0.011826,-0.244973,-0.981487,0.185879,0.046174
-0.053248,0.012926,-0.242878,-0.981487,0.185879,0.046174
-0.053774,0.010451,-0.244190,-0.981487,0.185879,0.046174
-0.053241,0.012933,-0.242762,-0.981487,0.185879,0.046174
-0.043156,-0.031199,-0.220425,-0.813610,-0.532629,0.233122
-0.042274,-0.032295,-0.219852,-0.813610,-0.532629,0.233122
-0.043636,-0.030261,-0.219890,-0.814983,-0.564446,0.131164
-0.043545,-0.030416,-0.219994,-0.814983,-0.564446,0.131164
-0.009874,0.054439,-0.251261,-0.184536,0.977172,-0.105272
-0.043274,-0.034064,-0.237008,-0.805020,-0.592215,0.035001
-0.043226,-0.034121,-0.236864,-0.805020,-0.592215,0.035001
-0.036309,0.045331,-0.231938,-0.691228,0.697386,-0.189357
-0.035827,0.045627,-0.232602,-0.691228,0.697386,-0.189357
-0.009251,0.059938,-0.229647,-0.134963,0.919694,-0.368712
-0.008074,0.060239,-0.229327,-0.134963,0.919694,-0.368712
-0.010102,0.060021,-0.229128,-0.134963,0.919694,-0.368712
-0.036098,0.045619,-0.231655,-0.678618,0.697425,-0.230385
-0.036989,0.044653,-0.231969,-0.678618,0.697425,-0.230385
-0.017797,0.067195,-0.212508,-0.294902,0.769934,-0.565893
-0.017861,0.067697,-0.211793,-0.294902,0.769934,-0.565893
-0.019380,0.066474,-0.212666,-0.294902,0.769934,-0.565893
-0.042910,-0.031848,-0.221260,-0.802412,-0.568817,0.180505
-0.043591,-0.031151,-0.222097,-0.802412,-0.568817,0.180505
-0.049620,0.019131,-0.211540,-0.976450,0.173342,0.128447
-0.049412,0.020617,-0.211951,-0.976450,0.173342,0.128447
-0.049476,0.020787,-0.212667,-0.976450,0.173342,0.128447
-0.049708,0.019904,-0.213246,-0.976450,0.173342,0.128447
-0.049078,0.022302,-0.211664,-0.976450,0.173342,0.128447
-0.049391,0.021132,-0.212479,-0.976450,0.173342,0.128447
-0.032010,0.075550,-0.146987,-0.967460,0.252954,0.005994
-0.031557,0.077253,-0.145798,-0.967460,0.252954,0.005994
-0.008163,0.055486,-0.245468,-0.134593,0.979192,-0.151880
-0.009386,0.055402,-0.244938,-0.134593,0.979192,-0.151880
-0.008477,0.055624,-0.244295,-0.134593,0.979192,-0.151880
-0.043846,-0.027641,-0.213732,-0.836701,-0.498363,0.227083
-0.043730,-0.027470,-0.212925,-0.836701,-0.498363,0.227083
-0.051459,0.016628,-0.225578,-0.980536,0.191353,0.043976
-0.052083,0.013702,-0.226713,-0.980536,0.191353,0.043976
-0.051774,0.015034,-0.225646,-0.980536,0.191353,0.043976
-0.052014,0.014651,-0.227886,-0.977227,0.188545,0.097353
-0.051624,0.016305,-0.227163,-0.977227,0.188545,0.097353
-0.051822,0.015052,-0.226734,-0.977227,0.188545,0.097353
-0.010957,0.054110,-0.252635,-0.182889,0.981387,-0.058572
-0.010294,0.054245,-0.252446,-0.182889,0.981387,-0.058572
-0.053076,0.012629,-0.237934,-0.976916,0.208393,0.046979
-0.052902,0.013348,-0.237496,-0.976916,0.208393,0.046979
-0.042030,-0.033712,-0.223397,-0.799525,-0.575840,0.170787
-0.030584,0.081977,-0.126663,-0.984454,0.174270,-0.021928
-0.030636,0.081660,-0.126864,-0.984454,0.174270,-0.021928
-0.037562,0.051033,-0.211274,-0.813484,0.549897,-0.189359
-0.036679,0.052422,-0.211028,-0.813484,0.549897,-0.189359
-0.037016,0.051746,-0.211547,-0.813484,0.549897,-0.189359
-0.029998,0.074506,-0.186974,-0.815925,0.541408,-0.202837
-0.030472,0.073317,-0.188240,-0.815925,0.541408,-0.202837
-0.031172,0.072252,-0.188272,-0.815925,0.541408,-0.202837
-0.031527,0.071656,-0.188451,-0.809915,0.546578,-0.212813
-0.030633,0.073523,-0.187071,-0.809915,0.546578,-0.212813
-0.046375,-0.029581,-0.257064,-0.857011,-0.515283,-0.004036
-0.046604,-0.029205,-0.256053,-0.857011,-0.515283,-0.004036
-0.046602,-0.029206,-0.256582,-0.857011,-0.515283,-0.004036
-0.036182,0.046757,-0.227814,-0.704678,0.673428,-0.223434
-0.036479,0.046060,-0.228975,-0.704678,0.673428,-0.223434
-0.012328,0.064675,-0.219030,-0.206743,0.846591,-0.490449
-0.012027,0.063856,-0.220573,-0.206743,0.846591,-0.490449
-0.012706,0.064403,-0.219341,-0.206743,0.846591,-0.490449
-0.045992,-0.030249,-0.249083,-0.840863,-0.541041,-0.014991
-0.046717,-0.029113,-0.249517,-0.840863,-0.541041,-0.014991
-0.045325,-0.031245,-0.250619,-0.840863,-0.541041,-0.014991
-0.044583,-0.032315,-0.241967,-0.808791,-0.585773,0.052226
-0.044496,-0.032481,-0.242510,-0.808791,-0.585773,0.052226
-0.023745,0.073464,-0.200238,-0.512395,0.673674,-0.532555
-0.023979,0.070968,-0.203173,-0.512395,0.673674,-0.532555
-0.023516,0.072079,-0.202211,-0.512395,0.673674,-0.532555
-0.044052,-0.033057,-0.241163,-0.816432,-0.576387,-0.034890
-0.044652,-0.032244,-0.240528,-0.816432,-0.576387,-0.034890
-0.044053,-0.033044,-0.241345,-0.816432,-0.576387,-0.034890
-0.043269,-0.033874,-0.233809,-0.804938,-0.592154,0.037797
-0.044069,-0.032833,-0.234531,-0.804938,-0.592154,0.037797
-0.043773,-0.033270,-0.235078,-0.804938,-0.592154,0.037797
-0.044756,-0.027061,-0.216123,-0.858367,-0.468881,0.208225
-0.044349,-0.027357,-0.215096,-0.858367,-0.468881,0.208225
-0.012113,0.053707,-0.254517,-0.219280,0.975500,-0.017779
-0.010989,0.053946,-0.255151,-0.219280,0.975500,-0.017779
-0.037279,0.043407,-0.235421,-0.692358,0.704478,-0.156046
-0.036377,0.044188,-0.235898,-0.692358,0.704478,-0.156046
-0.035218,0.045727,-0.234147,-0.664250,0.705273,-0.247713
-0.042821,-0.033104,-0.225214,-0.816697,-0.565406,0.115419
-0.028152,0.073016,-0.194921,-0.702133,0.600184,-0.383131
-0.027860,0.073236,-0.195112,-0.702133,0.600184,-0.383131
-0.028437,0.072699,-0.194895,-0.702133,0.600184,-0.383131
-0.038410,0.039899,-0.248667,-0.707569,0.701734,-0.083158
-0.039417,0.038755,-0.249758,-0.707569,0.701734,-0.083158
-0.045086,-0.020204,-0.203449,-0.896158,-0.382810,0.224406
-0.050384,0.019174,-0.218299,-0.975959,0.194696,0.097968
-0.050020,0.020063,-0.216455,-0.975959,0.194696,0.097968
-0.050082,0.019103,-0.215184,-0.975959,0.194696,0.097968
-0.049804,0.021211,-0.216577,-0.975959,0.194696,0.097968
-0.044782,0.021462,-0.186375,-0.974021,0.075305,0.213569
-0.046193,0.017745,-0.191484,-0.974021,0.075305,0.213569
-0.045081,0.020875,-0.187530,-0.974021,0.075305,0.213569
-0.045408,0.020223,-0.188788,-0.974021,0.075305,0.213569
-0.045954,0.018312,-0.190598,-0.974021,0.075305,0.213569
-0.044360,0.022938,-0.184976,-0.974021,0.075305,0.213569
-0.046091,0.017988,-0.191105,-0.974021,0.075305,0.213569
-0.045800,0.019038,-0.190152,-0.974021,0.075305,0.213569
-0.031449,0.077465,-0.140968,-0.975145,0.221033,0.015366
-0.031316,0.078090,-0.141587,-0.975145,0.221033,0.015366
-0.044900,-0.031898,-0.245892,-0.822819,-0.568170,0.012322
-0.045211,-0.031460,-0.246466,-0.822819,-0.568170,0.012322
-0.045162,-0.031500,-0.245025,-0.822819,-0.568170,0.012322
-0.044401,-0.032606,-0.245186,-0.825621,-0.563738,-0.023432
-0.044246,-0.032853,-0.244702,-0.825621,-0.563738,-0.023432
-0.045235,-0.031401,-0.244811,-0.825621,-0.563738,-0.023432
-0.034371,0.050116,-0.223569,-0.691633,0.675806,-0.254812
-0.034897,0.049538,-0.223681,-0.691633,0.675806,-0.254812
-0.035615,0.049019,-0.223112,-0.691633,0.675806,-0.254812
-0.005663,0.056618,-0.241274,-0.098675,0.973012,-0.208592
-0.007871,0.056327,-0.241590,-0.098675,0.973012,-0.208592
-0.037360,0.041266,-0.245826,-0.685415,0.718125,-0.120431
-0.037356,0.041514,-0.244351,-0.685415,0.718125,-0.120431
-0.038399,0.040130,-0.246705,-0.685415,0.718125,-0.120431
-0.042805,-0.034104,-0.230488,-0.799478,-0.594187,0.088188
-0.032222,0.074361,-0.170212,-0.904505,0.424944,-0.035967
-0.032330,0.074103,-0.170580,-0.904505,0.424944,-0.035967
-0.032449,0.073861,-0.170438,-0.904505,0.424944,-0.035967
-0.043425,-0.032835,-0.227941,-0.812430,-0.580711,0.052278
-0.043439,-0.032848,-0.228303,-0.812430,-0.580711,0.052278
-0.043988,-0.032102,-0.228562,-0.812430,-0.580711,0.052278
-0.044366,-0.031801,-0.229551,-0.802097,-0.573356,0.167041
-0.043377,-0.033194,-0.229584,-0.802097,-0.573356,0.167041
-0.044535,-0.022894,-0.206256,-0.879080,-0.425457,0.214952
-0.045175,-0.021949,-0.207011,-0.879080,-0.425457,0.214952
-0.036305,0.043508,-0.239045,-0.684210,0.714418,-0.146508
-0.035947,0.043914,-0.238735,-0.684210,0.714418,-0.146508
-0.016093,0.065467,-0.216015,-0.277996,0.805717,-0.523009
-0.014454,0.067198,-0.214215,-0.277996,0.805717,-0.523009
-0.015512,0.066878,-0.214147,-0.277996,0.805717,-0.523009
-0.014778,0.067460,-0.213640,-0.277996,0.805717,-0.523009
-0.015403,0.067363,-0.213516,-0.231178,0.786627,-0.572516
-0.015882,0.066781,-0.214126,-0.231178,0.786627,-0.572516
-0.015413,0.067831,-0.212868,-0.231178,0.786627,-0.572516
-0.006351,0.056754,-0.240434,-0.099295,0.960707,-0.259197
-0.005301,0.056781,-0.240740,-0.099295,0.960707,-0.259197
-0.006932,0.056844,-0.239877,-0.099295,0.960707,-0.259197
-0.044421,-0.028991,-0.219735,-0.837386,-0.495720,0.230319
-0.010702,0.062459,-0.223686,-0.144821,0.887564,-0.437330
-0.008446,0.063040,-0.223247,-0.144821,0.887564,-0.437330
-0.043290,-0.030277,-0.218177,-0.839322,-0.523654,0.146033
-0.044657,-0.028408,-0.219335,-0.839322,-0.523654,0.146033
-0.044224,-0.030735,-0.224153,-0.816731,-0.543982,0.192439
-0.043339,-0.032080,-0.224144,-0.835393,-0.534008,0.130210
-0.052675,0.013807,-0.235205,-0.978623,0.192814,0.071547
-0.052762,0.013222,-0.234832,-0.978623,0.192814,0.071547
-0.020976,0.068891,-0.208254,-0.435128,0.719699,-0.541015
-0.020849,0.070148,-0.206678,-0.435128,0.719699,-0.541015
-0.020687,0.070368,-0.206514,-0.435128,0.719699,-0.541015
-0.021852,0.068778,-0.207701,-0.435128,0.719699,-0.541015
-0.021888,0.069905,-0.206269,-0.393329,0.712600,-0.580942
-0.020415,0.071178,-0.205697,-0.393329,0.712600,-0.580942
-0.021046,0.070188,-0.206490,-0.393329,0.712600,-0.580942
-0.033178,0.072461,-0.165792,-0.933196,0.359312,-0.006348
-0.033298,0.072152,-0.165743,-0.933196,0.359312,-0.006348
-0.032768,0.073543,-0.164869,-0.933196,0.359312,-0.006348
-0.045515,-0.022774,-0.210051,-0.870302,-0.456576,0.184699
-0.044549,-0.024044,-0.208663,-0.870302,-0.456576,0.184699
-0.045570,-0.023111,-0.210931,-0.868407,-0.430428,0.246174
-0.044328,-0.024939,-0.209749,-0.868407,-0.430428,0.246174
-0.045055,-0.024318,-0.211231,-0.868407,-0.430428,0.246174
-0.036447,0.051757,-0.213470,-0.795715,0.572731,-0.197020
-0.037788,0.049061,-0.215891,-0.795715,0.572731,-0.197020
-0.037421,0.049584,-0.215853,-0.795715,0.572731,-0.197020
-0.039960,0.049740,-0.180003,-0.976494,0.200212,0.079839
-0.040138,0.049200,-0.180827,-0.976494,0.200212,0.079839
-0.041265,0.045290,-0.184779,-0.976494,0.200212,0.079839
-0.040933,0.046986,-0.184964,-0.976494,0.200212,0.079839
-0.041500,0.044055,-0.184564,-0.976494,0.200212,0.079839
-0.040458,0.048195,-0.182201,-0.976494,0.200212,0.079839
-0.040667,0.047224,-0.182335,-0.976494,0.200212,0.079839
-0.040183,0.049377,-0.181806,-0.976494,0.200212,0.079839
-0.041249,0.045632,-0.185429,-0.976494,0.200212,0.079839
-0.040679,0.047158,-0.182317,-0.976494,0.200212,0.079839
-0.041259,0.045498,-0.185222,-0.976494,0.200212,0.079839
-0.040828,0.046977,-0.183672,-0.976494,0.200212,0.079839
-0.041339,0.044806,-0.184475,-0.976494,0.200212,0.079839
-0.039306,0.052077,-0.177878,-0.976494,0.200212,0.079839
-0.046446,-0.029491,-0.253939,-0.837225,-0.546843,-0.004071
-0.046689,-0.029141,-0.251189,-0.837225,-0.546843,-0.004071
-0.046540,-0.029351,-0.253314,-0.837225,-0.546843,-0.004071
-0.046149,-0.029944,-0.253877,-0.837225,-0.546843,-0.004071
-0.046801,-0.028978,-0.250023,-0.837225,-0.546843,-0.004071
-0.035037,0.046343,-0.232737,-0.666002,0.712794,-0.219921
-0.034896,0.046714,-0.231959,-0.666002,0.712794,-0.219921
-0.005396,0.058571,-0.234487,-0.077374,0.942914,-0.323922
-0.030714,0.081004,-0.129525,-0.984778,0.173784,-0.003408
-0.046730,0.023529,-0.197212,-0.976760,0.125993,0.173397
-0.047571,0.020578,-0.199795,-0.976760,0.125993,0.173397
-0.046644,0.023174,-0.196462,-0.976760,0.125993,0.173397
-0.047725,0.021068,-0.201029,-0.976760,0.125993,0.173397
-0.047239,0.021445,-0.198552,-0.976760,0.125993,0.173397
-0.046236,0.024450,-0.195092,-0.976760,0.125993,0.173397
-0.047176,0.022621,-0.199066,-0.976760,0.125993,0.173397
-0.047799,0.020193,-0.200805,-0.976760,0.125993,0.173397
-0.048111,0.019963,-0.202403,-0.976760,0.125993,0.173397
-0.047507,0.021718,-0.200275,-0.976760,0.125993,0.173397
-0.036462,0.050975,-0.215457,-0.763970,0.597685,-0.243153
-0.036364,0.050957,-0.215808,-0.763970,0.597685,-0.243153
-0.031674,0.076883,-0.149938,-0.956210,0.292617,0.006122
-0.031732,0.076684,-0.149365,-0.956210,0.292617,0.006122
-0.044011,-0.031520,-0.226087,-0.825289,-0.558326,0.084682
-0.044823,-0.030326,-0.226114,-0.825289,-0.558326,0.084682
-0.043108,-0.033022,-0.226675,-0.813484,-0.549897,0.189359
-0.053765,0.011520,-0.256464,-0.979858,0.199665,-0.003462
-0.053802,0.011325,-0.257096,-0.979858,0.199665,-0.003462
-0.044118,-0.032941,-0.238326,-0.816863,-0.574202,0.055022
-0.044714,-0.032164,-0.239088,-0.816863,-0.574202,0.055022
-0.044299,-0.032649,-0.236776,-0.825890,-0.563790,-0.006826
-0.045561,-0.030801,-0.236979,-0.825890,-0.563790,-0.006826
-0.044368,-0.032544,-0.237166,-0.825890,-0.563790,-0.006826
-0.053845,0.011007,-0.251063,-0.980379,0.196541,0.015119
-0.053787,0.011230,-0.250217,-0.980379,0.196541,0.015119
-0.053881,0.010905,-0.252091,-0.980379,0.196541,0.015119
-0.053853,0.010807,-0.248997,-0.980379,0.196541,0.015119
-0.037952,0.040294,-0.249165,-0.689258,0.721048,-0.070804
-0.038533,0.039895,-0.247592,-0.689258,0.721048,-0.070804
-0.037252,0.041098,-0.247818,-0.689258,0.721048,-0.070804
-0.044233,-0.030220,-0.222367,-0.835158,-0.526609,0.158725
-0.039846,0.038172,-0.251280,-0.698221,0.715147,-0.032443
-0.039253,0.038730,-0.251739,-0.698221,0.715147,-0.032443
-0.038832,0.039128,-0.252014,-0.698221,0.715147,-0.032443
-0.045451,0.022826,-0.190003,-0.974158,0.080254,0.211129
-0.046119,0.019391,-0.191774,-0.974158,0.080254,0.211129
-0.044071,0.026492,-0.185029,-0.974158,0.080254,0.211129
-0.044981,0.023640,-0.188140,-0.974158,0.080254,0.211129
-0.046014,0.020064,-0.191546,-0.974158,0.080254,0.211129
-0.043088,0.029695,-0.181712,-0.974158,0.080254,0.211129
-0.045031,0.023809,-0.188436,-0.974158,0.080254,0.211129
-0.044137,0.025941,-0.185122,-0.974158,0.080254,0.211129
-0.045381,0.021420,-0.189140,-0.974158,0.080254,0.211129
-0.045583,0.020810,-0.189839,-0.974158,0.080254,0.211129
-0.045696,0.021952,-0.190796,-0.974158,0.080254,0.211129
-0.045404,0.021615,-0.189323,-0.974158,0.080254,0.211129
-0.044302,0.025087,-0.185559,-0.974158,0.080254,0.211129
-0.044307,0.024219,-0.185201,-0.975324,0.090239,0.201493
-0.044817,0.022939,-0.187109,-0.975324,0.090239,0.201493
-0.045120,0.021719,-0.188032,-0.975324,0.090239,0.201493
-0.043965,0.025532,-0.184130,-0.975324,0.090239,0.201493
-0.043040,0.029352,-0.181350,-0.975324,0.090239,0.201493
-0.045669,0.019789,-0.189832,-0.975324,0.090239,0.201493
-0.038448,0.039645,-0.250582,-0.711226,0.699685,-0.067805
-0.038759,0.039303,-0.250851,-0.711226,0.699685,-0.067805
-0.038120,0.039939,-0.250994,-0.711226,0.699685,-0.067805
-0.043889,-0.033006,-0.233475,-0.822670,-0.565850,0.055033
-0.044273,-0.032394,-0.232929,-0.822670,-0.565850,0.055033
-0.051213,0.017096,-0.223448,-0.975305,0.211174,0.064695
-0.051523,0.015922,-0.224328,-0.975305,0.211174,0.064695
-0.050577,0.019682,-0.222235,-0.975305,0.211174,0.064695
-0.053087,0.013797,-0.243883,-0.975269,0.218987,0.029916
-0.053049,0.014100,-0.244878,-0.975269,0.218987,0.029916
-0.053075,0.013927,-0.244448,-0.975269,0.218987,0.029916
-0.032526,0.074237,-0.160961,-0.938282,0.345683,-0.011396
-0.032871,0.073293,-0.161203,-0.938282,0.345683,-0.011396
-0.032573,0.074108,-0.160977,-0.938282,0.345683,-0.011396
-0.032394,0.074585,-0.161242,-0.938282,0.345683,-0.011396
-0.038520,0.049927,-0.210185,-0.840012,0.515901,-0.168002
-0.037434,0.052005,-0.209219,-0.840012,0.515901,-0.168002
-0.036024,0.043140,-0.242140,-0.658884,0.737287,-0.149267
-0.036925,0.042084,-0.243378,-0.658884,0.737287,-0.149267
-0.034645,0.051391,-0.219732,-0.725997,0.644106,-0.240949
-0.034693,0.051705,-0.218750,-0.725997,0.644106,-0.240949
-0.049038,0.020370,-0.208763,-0.976869,0.170921,0.128503
-0.049435,0.019236,-0.210270,-0.976869,0.170921,0.128503
-0.048999,0.020785,-0.209019,-0.976869,0.170921,0.128503
-0.048760,0.021163,-0.207705,-0.976869,0.170921,0.128503
-0.049014,0.020421,-0.208646,-0.976869,0.170921,0.128503
-0.048750,0.020915,-0.207296,-0.976869,0.170921,0.128503
-0.038277,0.051340,-0.168893,-0.978834,0.122200,0.164168
-0.039538,0.046793,-0.173021,-0.978834,0.122200,0.164168
-0.037819,0.053651,-0.167886,-0.978834,0.122200,0.164168
-0.038788,0.050029,-0.170964,-0.978834,0.122200,0.164168
-0.039799,0.046275,-0.174196,-0.978834,0.122200,0.164168
-0.038487,0.051067,-0.169941,-0.978834,0.122200,0.164168
-0.037620,0.053544,-0.166621,-0.978834,0.122200,0.164168
-0.036998,0.056541,-0.165146,-0.978834,0.122200,0.164168
-0.037749,0.053442,-0.167312,-0.978834,0.122200,0.164168
-0.038113,0.051656,-0.168154,-0.978834,0.122200,0.164168
-0.039832,0.046048,-0.174220,-0.978834,0.122200,0.164168
-0.038978,0.048618,-0.171048,-0.978834,0.122200,0.164168
-0.039984,0.045791,-0.174937,-0.978834,0.122200,0.164168
-0.038071,0.052522,-0.168547,-0.978834,0.122200,0.164168
-0.045568,-0.017166,-0.200502,-0.907301,-0.350978,0.231558
-0.045367,-0.017319,-0.199952,-0.907301,-0.350978,0.231558
-0.045608,-0.017190,-0.200695,-0.907301,-0.350978,0.231558
-0.045346,-0.019079,-0.202568,-0.906041,-0.356308,0.228328
-0.045871,-0.024486,-0.215163,-0.864644,-0.446607,0.230071
-0.045596,-0.025173,-0.215463,-0.864644,-0.446607,0.230071
-0.045430,-0.024950,-0.214312,-0.868876,-0.461729,0.178496
-0.045035,-0.025598,-0.214063,-0.868876,-0.461729,0.178496
-0.046005,-0.024021,-0.214708,-0.868876,-0.461729,0.178496
-0.040034,0.050948,-0.193726,-0.939805,0.338330,-0.047962
-0.040652,0.048842,-0.196433,-0.939805,0.338330,-0.047962
-0.040434,0.049583,-0.195489,-0.939805,0.338330,-0.047962
-0.040015,0.050740,-0.195528,-0.939805,0.338330,-0.047962
-0.039949,0.050917,-0.195586,-0.939805,0.338330,-0.047962
-0.044495,-0.032036,-0.232552,-0.821356,-0.567764,0.054945
-0.043899,-0.032872,-0.232250,-0.821356,-0.567764,0.054945
-0.046128,-0.030081,-0.242020,-0.846017,-0.532372,-0.028888
-0.046343,-0.029731,-0.242184,-0.846017,-0.532372,-0.028888
-0.034402,0.049880,-0.224127,-0.701483,0.673235,-0.233828
-0.034613,0.049511,-0.224557,-0.701483,0.673235,-0.233828
-0.047132,-0.028458,-0.242969,-0.843988,-0.535582,0.028913
-0.046910,-0.028844,-0.243617,-0.843988,-0.535582,0.028913
-0.051888,0.016008,-0.230261,-0.975820,0.216185,0.032249
-0.052028,0.015409,-0.230452,-0.975820,0.216185,0.032249
-0.007637,0.058902,-0.232909,-0.115144,0.933345,-0.340014
-0.007790,0.059056,-0.232433,-0.115144,0.933345,-0.340014
-0.052332,0.014325,-0.231590,-0.973519,0.214001,0.080405
-0.051580,0.017506,-0.230915,-0.973519,0.214001,0.080405
-0.052153,0.015111,-0.231512,-0.973519,0.214001,0.080405
-0.030207,0.083723,-0.127225,-0.966243,0.254793,-0.038157
-0.030171,0.084092,-0.125663,-0.966243,0.254793,-0.038157
-0.046970,-0.028684,-0.251362,-0.856712,-0.515651,-0.012181
-0.047266,-0.028148,-0.253189,-0.856712,-0.515651,-0.012181
-0.046860,-0.028791,-0.254505,-0.856712,-0.515651,-0.012181
-0.047682,-0.027438,-0.253911,-0.856712,-0.515651,-0.012181
-0.008298,0.055057,-0.247853,-0.121040,0.988297,-0.092836
-0.008370,0.054969,-0.248694,-0.121040,0.988297,-0.092836
-0.009034,0.055015,-0.247422,-0.140503,0.973394,-0.181008
-0.007429,0.055342,-0.246913,-0.140503,0.973394,-0.181008
-0.045272,-0.020737,-0.205288,-0.898297,-0.397797,0.186603
-0.044747,-0.021833,-0.205102,-0.898297,-0.397797,0.186603
-0.045364,-0.021354,-0.206729,-0.888467,-0.390095,0.241770
-0.045482,-0.021455,-0.207329,-0.888467,-0.390095,0.241770
-0.035659,0.043742,-0.240793,-0.637258,0.750345,-0.175743
-0.034673,0.044729,-0.240156,-0.637258,0.750345,-0.175743
-0.039603,0.051147,-0.198860,-0.916649,0.386174,-0.103071
-0.039730,0.050432,-0.200401,-0.916649,0.386174,-0.103071
-0.039155,0.052043,-0.199467,-0.916649,0.386174,-0.103071
-0.039096,0.052403,-0.198650,-0.916649,0.386174,-0.103071
-0.030196,0.083223,-0.131163,-0.972579,0.231452,-0.022785
-0.030572,0.081584,-0.131752,-0.972579,0.231452,-0.022785
-0.050927,0.017839,-0.221576,-0.975077,0.209734,0.072364
-0.050607,0.018799,-0.220043,-0.975077,0.209734,0.072364
